3.19767, 48.6191, 87.3267,
2.0531, 85.851, 51.2385,
2.86488, -71.6271, 69.7233,
5.57087, 26.1913, 96.3482,
8.36685, -15.3398, 98.4616,
2.47381, -97.5358, 21.9235,
8.46288, -67.3091, 73.4701,
8.2507, -69.063, 71.8486,
9.4644, 80.7958, 58.1589,
14.6584, 51.2955, 84.5808,
9.6953, 83.4244, 54.2804,
17.9813, -30.8796, 93.3977,
11.3242, 84.634, 52.0465,
11.9797, 87.2212, 47.4232,
19.1827, 62.2507, 75.8741,
19.4955, -72.7995, 65.7279,
29.0189, -17.6779, 94.05,
24.3533, 58.2415, 77.5554,
16.7584, -82.1605, 54.4867,
35.4813, -14.2341, 92.4038,
18.1576, 86.8071, 46.2041,
0.789823, 99.9918, 1.01264,
27.362, -68.6051, 67.4141,
37.4798, 26.4645, 88.8532,
25.3998, -75.5542, 60.3855,
27.407, 75.0438, 60.1439,
22.3807, -84.0913, 49.2723,
42.1779, -27.4589, 86.412,
45.9807, -17.9403, 86.9708,
21.2311, 89.6254, 38.9426,
41.1908, 49.3621, 76.5944,
44.8329, 35.5238, 82.0248,
30.0981, -78.379, 54.3216,
15.491, 95.3303, 25.9259,
46.6564, -35.9635, 80.8072,
23.5828, -87.9397, 41.3577,
38.0482, 67.3396, 63.3854,
48.3297, 39.8149, 77.9681,
43.8821, 57.3394, 69.1849,
34.916, -78.2741, 51.5174,
57.0462, -5.19438, 81.968,
65.2709, 5.64459, 75.5503,
38.006, 82.8017, 41.224,
60.0507, 45.8038, 65.5434,
41.7032, 79.6134, 43.8469,
44.3233, -76.4812, 46.7554,
68.7625, -15.4677, 70.9399,
53.5145, -64.6853, 54.3325,
71.2288, 7.13185, 69.8255,
42.9249, 80.3923, 41.1647,
56.3062, 62.7152, 53.8184,
55.271, 65.5473, 51.4652,
52.1578, 70.5343, 48.005,
65.0234, -48.461, 58.5105,
71.021, -37.0684, 59.8494,
50.1553, 76.4484, 40.498,
76.9717, 15.6932, 61.8795,
77.4466, 16.9053, 60.9609,
79.0181, -16.433, 59.0432,
55.5247, 74.0658, 37.832,
70.15, 53.418, 47.1751,
61.2597, 67.6601, 40.8577,
81.5218, -16.9579, 55.3771,
75.8638, 40.8543, 50.7505,
75.9219, 41.2592, 50.3342,
76.4418, 40.841, 49.8865,
35.3104, -90.4879, 23.7723,
76.8357, 40.7587, 49.3458,
72.4251, 52.8195, 44.3249,
22.7313, -96.2403, 14.8695,
65.9698, 64.2925, 38.9161,
83.7857, -23.3592, 49.3388,
84.6974, 21.6274, 48.5655,
86.8066, 10.434, 48.5361,
66.1982, -67.2941, 33.0046,
41.3978, -88.68, 20.5444,
87.2437, 26.9382, 40.7782,
74.9885, -55.6271, 35.8099,
86.9248, 30.1413, 39.1864,
75.7266, -55.9438, 33.7012,
87.0397, 32.8542, 36.6701,
88.5953, 27.5003, 37.3444,
88.6497, 27.347, 37.3279,
89.4973, 28.4169, 34.3906,
93.2479, -5.84788, 35.646,
80.3278, -50.8474, 31.016,
53.3064, -81.9602, 20.9988,
90.7901, -24.7065, 33.8638,
94.6478, 12.12, 29.915,
95.072, 9.76697, 29.4267,
95.8261, 4.25829, 28.2706,
80.5653, 54.7068, 22.7243,
69.8473, 69.2437, 18.074,
73.0221, 65.7057, 18.7223,
73.1633, 65.9142, 17.3912,
89.8678, -38.0604, 21.7987,
97.0386, -8.86577, 22.47,
94.0086, -27.9084, 19.5831,
68.2315, 71.9316, 13.0498,
97.0363, -14.2658, 19.505,
97.5936, -11.9174, 18.2612,
98.7147, -4.18224, 15.4245,
98.2385, 11.0597, 15.0626,
86.8442, 47.8807, 12.866,
92.6115, -35.4445, 12.9148,
99.2536, -0.522142, 12.1839,
80.7997, -58.0285, 10.2032,
94.5279, -30.6065, 11.3011,
97.9217, 17.2517, 10.6644,
98.8976, -10.2966, 10.6418,
99.44, -2.09763, 10.358,
92.8253, 36.0689, 9.0832,
45.8852, -88.6928, 5.30403,
99.4678, -4.5363, 9.2507,
99.5905, -3.39014, 8.38108,
82.5049, -56.0266, 7.34583,
92.2101, -38.185, 6.26066,
96.516, -25.5816, 5.49959,
98.4386, -16.7968, 5.26376,
77.4976, 63.1334, 2.87896,
62.7453, -77.7875, 3.48466,
93.3664, -35.6398, 3.53714,
81.0756, -58.4509, 3.19964,
99.1435, 12.8916, 2.08902,
58.3756, 81.1928, 0.120564,
96.9464, -24.4762, 1.52084,
70.7753, 70.6459, 0.145658,
79.6397, 60.4773, 0.0967193,
73.3544, -67.9637, 0.273127,
92.1889, 38.2791, -5.99256,
99.1922, -10.9296, -6.43838,
86.2075, -50.0957, -7.66095,
91.9157, 38.2903, -9.23922,
94.6632, -30.8284, -9.40693,
83.0617, -55.1011, -8.03939,
60.274, -79.5429, -6.3222,
94.636, 28.2328, -15.7143,
93.1988, -32.9787, -15.0462,
71.9142, -68.4498, -11.9574,
88.8756, 42.4691, -17.2482,
95.5807, 22.3175, -19.1379,
93.9218, -28.763, -18.7454,
82.3447, -53.7426, -18.1957,
80.7512, 55.863, -18.9357,
46.0014, -88.2467, -9.81778,
61.9529, -77.2897, -13.7167,
88.6908, -40.9667, -21.3467,
84.6388, -48.4386, -22.1355,
85.164, -46.8465, -23.5054,
89.9851, 35.1356, -25.8489,
88.0355, -40.4078, -24.8389,
85.6174, -44.4531, -26.3359,
31.8918, -94.2635, -9.86429,
84.5655, -45.0453, -28.6286,
90.3504, 28.4689, -32.0362,
75.285, -60.3173, -26.3436,
87.1206, 37.4319, -31.7624,
35.4407, -92.6904, -12.347,
82.343, 46.6357, -32.3224,
81.3993, -48.9429, -31.285,
91.8866, 14.4174, -36.7287,
67.3291, -68.5836, -27.624,
77.7765, 52.827, -34.0606,
77.7768, 52.8265, -34.0607,
90.382, 9.10671, -41.811,
89.1464, -16.5927, -42.1615,
81.775, 41.3074, -40.0818,
79.1162, 46.9874, -39.1511,
78.6768, -48.4118, -38.2918,
70.6659, -61.523, -34.9464,
26.9919, -95.4272, -12.8485,
80.6105, -42.0398, -41.6485,
67.0302, -65.0454, -35.7219,
52.5582, -79.8449, -29.3672,
65.731, -64.2832, -39.3333,
77.3849, -41.1581, -48.1413,
57.2298, -73.5348, -36.2958,
81.7164, 15.9632, -55.386,
41.2415, -86.1715, -29.5569,
80.2869, -6.81265, -59.225,
38.7691, 87.2223, -29.8198,
32.5478, -91.4515, -24.0263,
62.4897, -57.7976, -52.4831,
52.4656, -72.7161, -44.2689,
46.1354, -79.7815, -38.8129,
71.5275, 31.1575, -62.5542,
63.2589, -54.7364, -54.7926,
74.2025, 11.1797, -66.0985,
43.486, -81.6222, -38.0367,
51.982, -71.9845, -46.0012,
71.7297, 10.3583, -68.9025,
47.4398, 74.3631, -47.1125,
35.4051, -87.1597, -33.9068,
52.5798, 66.6308, -52.8743,
47.3165, 73.3216, -48.8375,
47.2557, -73.2516, -49.001,
28.0095, -91.6336, -28.614,
49.5265, -68.75, -53.1091,
34.6682, -85.687, -38.1556,
31.195, -88.5533, -34.4264,
66.0887, 4.03788, -74.9398,
23.0605, -93.7993, -25.8825,
51.7768, 59.9059, -61.0774,
33.3352, -85.9632, -38.7181,
52.7505, 56.4859, -63.4565,
36.4522, -81.926, -44.2646,
61.0049, -15.0547, -77.7931,
27.3382, 89.1497, -36.1242,
37.1326, 78.453, -49.6618,
46.129, -64.9006, -60.4982,
32.8942, -83.8998, -43.3451,
57.3974, -1.99439, -81.863,
56.0993, 17.1795, -80.9799,
50.5594, 40.3133, -76.2796,
25.6054, -88.7074, -38.4106,
27.4542, 85.7514, -43.5081,
23.0938, -90.6838, -35.258,
47.3719, 43.848, -76.3758,
29.6714, -81.4802, -49.8055,
45.198, 28.841, -84.4117,
45.7867, 20.7352, -86.4502,
44.883, -21.3954, -86.7626,
32.8818, -67.0711, -66.485,
39.978, 39.7424, -82.5972,
31.7897, 68.0906, -65.978,
15.2681, -93.992, -30.5352,
20.8259, -87.7416, -43.2168,
39.7635, 33.9422, -85.2455,
39.7619, 33.9404, -85.247,
30.9613, 66.2613, -68.1971,
38.1312, -28.964, -87.7901,
11.1462, -96.1414, -25.1514,
20.3016, -85.4816, -47.7571,
36.6433, 16.1719, -91.6283,
17.7637, -88.0356, -43.9795,
23.5207, -74.5776, -62.3294,
14.2561, -90.1791, -40.7983,
20.4336, -75.9498, -61.7583,
29.0273, -27.8884, -91.5404,
23.7242, 56.23, -79.2171,
14.7997, -85.5846, -49.5605,
13.8992, 83.2752, -53.5915,
11.5048, 88.0898, -45.9112,
15.5402, 70.0892, -69.6133,
11.4649, -85.6942, -50.2499,
18.628, 35.0593, -91.7815,
19.1193, 26.6052, -94.4808,
15.0953, 54.6017, -82.4063,
17.0638, -25.5085, -95.1743,
9.83465, -81.4025, -57.2443,
15.4118, 18.2736, -97.1007,
4.39278, 93.5636, -35.0223,
9.98255, -52.7813, -84.3474,
4.7856, -89.1163, -45.1153,
4.08775, 74.0564, -67.0742,
2.47962, -91.8644, -39.4308,
4.61817, 25.1595, -96.673,
4.05703, 3.07953, -99.8702,
1.59381, 80.5874, -59.1873,
-2.30833, -77.4089, -63.2656,
-4.07671, -38.4613, -92.2177,
-3.10285, -79.1955, -60.979,
-3.4258, -85.4902, -51.7657,
-3.66008, 83.8979, -54.2931,
-6.57101, -30.1404, -95.123,
-8.67442, -1.16401, -99.6163,
-4.59675, -86.9505, -49.1781,
-5.2392, -89.1791, -44.9404,
-5.24111, -89.1793, -44.9397,
-7.80706, -76.8625, -63.4918,
-12.4581, -28.4276, -95.0614,
-7.36086, -83.9746, -53.7967,
-4.33179, -95.1772, -30.3734,
-13.7187, -39.7094, -90.7467,
-5.02961, 93.8423, -34.1809,
-5.7531, -93.4426, -35.1481,
-10.843, -74.9431, -65.3143,
-11.8292, -75.4248, -64.5846,
-18.0719, -2.52949, -98.3209,
-18.0719, -2.52949, -98.3209,
-7.47848, -92.7889, -36.528,
-10.433, -86.3295, -49.3798,
-13.0744, 82.8644, -54.4293,
-23.982, 5.92628, -96.9007,
-18.9901, 62.003, -76.1249,
-8.49389, -94.8594, -30.4885,
-26.3094, 19.0109, -94.5854,
-31.0361, -39.3487, -86.5358,
-27.614, -59.7796, -75.2586,
-20.5759, 81.8403, -53.6544,
-20.5812, 81.8367, -53.6579,
-35.6354, -19.3573, -91.4079,
-29.8932, -63.4832, -71.248,
-40.15, -1.03991, -91.58,
-25.1315, -80.3508, -53.9644,
-34.3393, -66.5071, -66.3145,
-29.48, 75.8286, -58.146,
-33.9484, -67.5254, -65.4815,
-32.7659, -73.4776, -59.3922,
-45.5261, 31.5612, -83.2542,
-36.6127, -67.0437, -64.5341,
-35.1218, -70.4679, -61.6501,
-25.4283, -86.9263, -42.3937,
-46.8092, -44.9046, -76.1083,
-42.2763, -59.2997, -68.5292,
-22.3364, 90.165, -37.0318,
-52.6988, 32.8578, -78.3786,
-39.6542, -72.004, -56.9471,
-53.0667, 50.5603, -68.0263,
-48.3312, 61.9893, -61.8176,
-46.5274, -67.1174, -57.7101,
-31.259, -87.3222, -37.3859,
-31.2593, -87.3225, -37.3851,
-27.5433, -90.6125, -32.1051,
-43.9536, -73.5959, -51.4949,
-12.7077, -98.1776, -14.1307,
-51.3104, -61.2819, -60.098,
-64.9777, -9.85961, -75.3704,
-58.7055, 45.5143, -66.9486,
-66.3069, 3.30292, -74.7829,
-65.1994, -27.6336, -70.6075,
-18.5072, 96.2006, -20.0728,
-51.27, -68.3706, -51.9312,
-52.2699, -67.0481, -52.6537,
-54.3119, 64.7994, -53.3971,
-65.0631, -42.7073, -62.7923,
-48.9983, -75.1699, -44.1435,
-45.7022, -78.9075, -41.0477,
-27.7408, -93.1561, -23.503,
-62.9496, 54.9238, -54.9612,
-74.7448, -16.3034, -64.4004,
-58.4131, -65.1403, -48.4216,
-62.1749, -59.147, -51.3412,
-54.9913, -70.3264, -45.0573,
-23.9468, 95.0157, -19.9644,
-40.1967, 85.6863, -32.2814,
-68.81, 48.6424, -53.8433,
-60.7362, -65.8255, -44.4759,
-78.1039, -25.5268, -56.9926,
-79.2341, 18.2879, -58.2023,
-79.2337, 18.2908, -58.202,
-71.9642, 44.9549, -52.917,
-71.5734, -47.1551, -51.5136,
-70.8059, -49.6637, -50.1999,
-74.0489, 44.3002, -50.5396,
-82.448, 11.1912, -55.4715,
-80.4298, 26.5925, -53.1403,
-84.099, -5.98339, -53.7732,
-70.4121, -55.3787, -44.4447,
-84.2721, 7.80724, -53.266,
-38.253, -89.4393, -23.1802,
-74.9867, -48.8075, -44.6634,
-82.6322, 26.9956, -49.4283,
-77.5361, -44.0161, -45.285,
-67.8935, -62.1106, -39.1503,
-80.0068, -38.4644, -46.0369,
-77.793, 43.712, -45.1388,
-82.5727, -33.8829, -45.0965,
-82.3818, -35.2971, -44.3549,
-39.7955, -89.6375, -19.5305,
-89.3744, -6.44355, -44.3926,
-90.0161, -8.1808, -42.7805,
-81.9353, -43.1972, -37.6911,
-62.5668, 72.3128, -29.2618,
-85.9454, 32.8093, -39.2038,
-17.9, -98.1283, -7.10067,
-43.5701, 87.8935, -19.4005,
-82.6411, -44.5135, -34.482,
-85.9996, 36.6334, -35.5255,
-92.4843, 3.46185, -37.8771,
-82.2483, -47.2799, -31.6202,
-91.9516, -18.3389, -34.7647,
-80.1958, 52.4031, -28.68,
-34.0717, -93.3754, -10.9614,
-73.4385, 62.8265, -25.683,
-49.0465, -85.7539, -15.5149,
-78.8103, -56.343, -24.7871,
-75.2959, -61.6315, -23.067,
-75.3734, -61.5902, -22.9236,
-70.9013, -67.3805, -20.8058,
-53.9393, -82.8943, -14.8017,
-95.0377, 16.2895, -26.5045,
-82.8879, 51.3936, -22.0974,
-94.0101, -27.1016, -20.6788,
-71.2682, -68.5045, -15.0987,
-40.1054, 91.1509, -9.11418,
-94.9722, 24.8526, -19.0427,
-89.0078, 42.0073, -17.692,
-78.5283, 59.9152, -15.6036,
-89.3889, -42.2609, -14.9546,
-55.95, -82.4423, -8.53657,
-54.7418, -83.2704, -8.32942,
-48.574, -87.1932, -6.15821,
-78.9053, -60.5931, -10.1208,
-63.9585, -76.4653, -7.89797,
-79.2261, -60.3262, -9.16385,
-60.6426, 79.1238, -7.86713,
-72.7802, -68.197, -7.22594,
-97.0237, 21.7462, -10.6537,
-95.9495, -26.5533, -9.41357,
-77.455, -62.9727, -5.92981,
-42.6154, -90.4261, -2.65624,
-69.1792, 71.9417, -6.21516,
-99.4234, 7.96287, -7.18199,
-76.3497, -64.4483, -4.13996,
-88.3682, 46.516, -5.22747,
-99.7491, 4.72324, -5.27418,
-79.7399, -60.2419, -3.5309,
-54.6282, 83.7459, -1.543,
-79.589, 60.5302, -1.30123,
-98.5477, -16.9756, -0.418532,
-87.2473, 48.8587, -0.850866,
-62.2598, 78.2487, -0.9219,
-99.8687, 5.11449, 0.281065,
-64.1293, -76.7072, 1.85617,
-86.2023, -50.6398, 2.18515,
-98.5594, 16.6147, 3.16193,
-87.6147, 48.118, 2.88479,
-93.1529, -35.9327, 5.60093,
-79.8764, -59.8488, 6.1555,
-86.3884, -49.7399, 7.93608,
-99.4406, -5.05736, 9.27297,
-82.0678, -56.4747, 8.68783,
-92.3722, 37.0877, 9.58579,
-69.0248, -71.8956, 8.16147,
-89.6455, -42.9277, 10.9952,
-29.5577, 95.4931, 2.72334,
-97.8012, -14.3392, 15.1433,
-76.9414, 62.6381, 12.5095,
-87.3456, -45.3848, 17.6344,
-81.5344, 54.9938, 18.1056,
-87.0573, -44.3019, 21.4095,
-90.3471, -36.0105, 23.2518,
-81.3929, 54.0085, 21.4074,
-83.4912, -49.8189, 23.3943,
-89.2113, -37.0422, 25.8691,
-84.8123, -46.4387, 25.5014,
-93.1596, 23.9607, 27.3345,
-95.5033, -8.51126, 28.402,
-89.052, -35.8753, 27.9769,
-36.1187, 92.4956, 11.8325,
-56.3216, 80.2491, 19.6969,
-89.2071, -30.648, 33.2083,
-70.8804, -65.0988, 27.1682,
-92.9842, 5.43354, 36.3925,
-81.4974, 46.8851, 34.0584,
-57.253, 78.5098, 23.6287,
-87.9126, 18.418, 43.9562,
-63.2769, 70.872, 31.1961,
-84.594, 31.787, 42.8188,
-87.4842, 15.4164, 45.9221,
-88.184, 1.75494, 47.1222,
-30.071, 94.1281, 15.3506,
-25.4114, -95.5847, 14.7589,
-87.0597, 11.1585, 47.9176,
-71.5185, 57.4767, 39.7685,
-81.8936, 33.3679, 46.6908,
-34.179, -91.4832, 21.5084,
-84.0232, -1.43354, 54.2038,
-57.2063, 72.8268, 37.7319,
-55.8664, 73.9801, 37.4953,
-80.4319, -21.7202, 55.3077,
-78.9587, -25.5132, 55.8086,
-44.1425, -83.6143, 32.5591,
-62.0856, 64.6213, 44.3786,
-52.4185, -73.4813, 43.0442,
-74.7931, 25.199, 61.4085,
-73.7667, 27.416, 61.6995,
-30.3413, -91.4981, 26.5989,
-53.6183, 71.0557, 45.5649,
-62.0622, 55.8763, 55.0102,
-73.3892, -16.4976, 65.8927,
-35.4439, 88.1624, 31.1629,
-37.8227, -85.2222, 36.1473,
-53.8829, 65.8259, 52.5698,
-49.8193, 69.3751, 52.0109,
-57.5525, 50.3426, 64.4463,
-51.9787, 61.6288, 59.1617,
-65.3888, 9.1463, 75.1042,
-29.8134, 88.7699, 35.0864,
-57.3389, -38.1254, 72.5169,
-60.0503, -9.70811, 79.3707,
-20.414, 94.2995, 26.2844,
-12.4066, -97.5879, 17.9634,
-54.9179, -28.6729, 78.4977,
-55.0243, 17.1499, 81.7203,
-52.6576, -27.7771, 80.3468,
-41.5486, -60.689, 67.7536,
-47.7982, -0.558018, 87.8352,
-31.9798, -73.0891, 60.2933,
-42.7721, 42.8068, 79.6124,
-45.828, 10.7961, 88.2227,
-24.1568, 84.9903, 46.8305,
-21.2583, -86.8283, 44.8211,
-41.5934, -2.42092, 90.9072,
-27.9743, -68.8298, 66.932,
-20.2181, 85.1867, 48.3162,
-24.1205, 76.9204, 59.173,
-33.0034, 18.7919, 92.5075,
-22.6267, -72.998, 64.4928,
-28.4875, 50.3343, 81.5777,
-28.8825, 39.9798, 86.9909,
-19.1699, -78.0615, 59.4888,
-27.3396, 41.6307, 86.7146,
-12.1883, 91.4964, 38.469,
-28.7272, -13.1906, 94.8723,
-27.0639, -27.263, 92.327,
-23.3584, -49.4279, 83.7333,
-18.5357, 67.335, 71.5712,
-21.428, 47.0747, 85.5851,
-23.034, 26.2278, 93.7099,
-20.4027, -36.1177, 90.9903,
-15.1306, -71.0144, 68.7606,
-9.72202, -85.0222, 51.7369,
-18.5512, 5.72543, 98.0973,
-15.1073, -34.3669, 92.686,
-6.73281, 72.487, 68.5587,
-1.92753, 97.6794, 21.3312,
